ncols	41
nrows	44
xllcorner	319975.000000
yllcorner	4158275.000000
cellsize	200.000000
NODATA_value	-9999.000000
6.84	8.89	11.60	10.98	8.01	7.41	7.59	7.72	7.64	7.52	7.36	7.50	7.58	7.47	7.60	7.61	7.74	7.77	8.19	8.36	8.66	8.72	8.90	9.04	9.15	9.12	9.41	9.69	9.79	9.94	10.14	10.34	10.35	10.14	10.16	10.30	10.07	10.08	10.13	9.97	9.97	
6.84	8.89	11.60	10.98	8.01	7.41	7.59	7.72	7.64	7.52	7.36	7.50	7.58	7.47	7.60	7.61	7.74	7.77	8.19	8.36	8.66	8.72	8.90	9.04	9.15	9.12	9.41	9.69	9.79	9.94	10.14	10.34	10.35	10.14	10.16	10.30	10.07	10.08	10.13	9.97	9.97	
4.72	6.46	10.52	12.30	9.98	8.00	7.30	6.63	6.52	6.59	6.87	7.12	7.09	7.14	7.39	7.41	8.16	8.07	8.04	8.27	8.62	8.89	9.12	9.15	9.29	9.41	9.53	9.65	9.91	10.10	10.28	10.48	10.51	10.34	10.41	10.52	10.11	10.05	10.07	9.84	9.84	
1.72	2.29	8.56	12.85	12.14	9.86	8.57	7.46	6.79	6.26	6.30	7.00	7.13	7.27	7.38	7.55	8.06	9.61	9.01	8.04	8.43	9.37	9.41	8.95	9.09	9.58	9.56	9.36	9.80	10.08	10.29	10.52	10.45	10.32	10.54	10.64	10.15	10.08	9.85	9.40	9.40	
1.63	1.32	6.87	11.55	13.66	12.00	10.93	10.05	8.93	7.40	6.69	7.38	8.20	6.84	7.27	7.09	9.21	10.82	9.84	8.02	8.26	10.11	10.11	9.06	8.75	9.35	9.64	9.44	9.79	10.14	10.41	10.48	10.33	10.35	10.55	10.50	10.27	10.20	9.66	9.12	9.12	
0.57	2.01	6.39	10.58	12.92	11.77	10.96	11.60	11.57	10.17	8.97	8.94	8.17	5.90	6.50	8.31	10.14	11.22	10.41	8.88	8.30	10.45	11.19	9.98	9.03	9.01	9.59	9.63	9.85	10.32	10.52	10.34	10.35	10.64	10.58	10.35	10.38	10.25	9.74	9.35	9.35	
0.83	3.52	6.74	10.24	11.96	11.35	10.32	10.10	10.44	11.21	11.15	10.87	9.73	7.11	6.49	8.57	11.02	11.76	11.62	9.73	8.66	10.26	11.02	10.82	9.83	9.32	9.68	9.89	10.05	10.54	10.44	10.13	10.37	10.73	10.60	10.47	10.40	10.33	9.99	9.57	9.57	
3.15	4.24	7.12	9.93	11.28	10.95	10.22	9.97	9.24	9.09	10.43	11.86	10.61	7.86	7.10	8.71	11.74	13.07	12.44	10.57	9.75	10.44	10.37	10.28	10.17	9.55	9.80	10.11	10.27	10.54	10.37	10.33	10.37	10.26	10.35	10.50	10.13	10.06	9.68	8.94	8.94	
4.09	5.00	7.55	9.81	10.93	10.40	9.82	10.21	9.47	8.22	9.82	11.11	9.39	7.60	7.19	8.72	11.66	13.88	13.33	12.59	12.08	11.24	9.33	9.06	9.40	10.66	9.59	10.23	10.52	10.51	10.39	10.89	10.74	9.74	9.52	9.60	9.38	10.08	8.99	7.60	7.60	
4.56	5.46	7.92	10.07	10.77	10.15	9.70	10.16	9.68	8.46	9.39	10.19	8.19	7.14	7.32	8.50	11.14	13.75	15.26	14.70	14.70	11.87	8.80	8.35	10.09	9.90	9.28	10.14	10.56	10.54	11.35	10.85	11.37	10.21	8.87	8.71	8.45	9.78	8.86	7.32	7.32	
4.90	5.71	8.05	10.41	10.98	10.26	9.85	9.60	9.26	8.75	9.21	9.20	7.59	7.06	5.73	7.63	11.66	14.50	15.69	16.72	16.07	13.60	10.10	9.53	9.82	9.67	10.35	11.28	11.77	12.24	11.40	10.89	12.93	13.59	11.78	7.12	7.21	8.71	8.68	8.00	8.00	
5.43	6.18	8.06	10.42	11.11	10.83	10.11	9.35	8.56	8.36	8.99	9.12	7.92	8.35	6.56	7.68	11.36	15.11	17.41	19.43	17.16	14.86	12.33	11.10	9.29	10.49	11.27	11.19	11.89	12.78	11.77	11.19	11.83	13.21	11.57	7.99	6.61	7.36	8.02	8.02	8.02	
5.99	6.76	8.19	10.31	11.17	10.98	10.30	9.33	7.97	7.84	8.30	8.70	8.51	7.45	9.32	7.11	8.26	12.26	18.38	22.47	20.45	16.08	14.09	11.81	11.53	11.00	11.75	12.03	12.65	14.07	11.79	10.85	10.64	11.77	12.27	8.95	6.76	7.43	7.64	7.44	7.44	
6.37	7.26	8.53	10.12	11.49	11.35	10.52	9.02	7.68	7.50	7.77	7.82	7.67	7.65	9.38	8.83	6.43	7.55	12.99	22.29	25.19	20.10	16.46	14.36	11.72	11.79	12.04	12.83	14.06	15.52	13.24	11.23	11.15	11.56	11.84	9.01	8.25	8.10	7.98	7.46	7.46	
6.93	7.77	9.82	9.59	10.77	11.57	10.52	8.53	7.36	7.18	7.53	7.28	6.34	6.72	8.15	8.21	5.79	5.61	9.12	18.13	25.12	25.98	22.15	18.40	14.77	10.82	12.32	13.75	14.94	16.35	15.21	13.28	12.45	12.22	10.22	9.39	8.72	8.36	8.02	7.32	7.32	
8.36	8.80	9.19	8.93	9.83	11.06	10.24	8.51	6.99	6.76	7.40	6.91	5.51	6.66	6.25	6.35	5.25	4.00	5.15	12.20	19.96	25.94	27.08	24.46	19.89	15.92	13.11	14.54	15.23	13.84	15.25	14.05	14.17	11.95	10.76	10.06	8.81	8.66	7.84	7.11	7.11	
7.62	9.02	9.66	8.22	9.04	10.41	9.46	9.12	7.47	6.68	7.02	6.39	5.39	5.53	7.00	5.94	3.95	4.28	2.66	7.07	13.07	19.98	24.53	26.60	24.90	21.24	18.78	14.69	13.00	14.11	12.71	13.38	13.89	12.89	11.69	10.48	12.38	7.94	7.47	7.25	7.25	
5.98	8.24	10.65	8.28	8.66	9.70	9.35	9.62	8.93	7.49	6.20	5.10	5.46	5.33	5.30	6.96	3.50	2.60	3.89	2.78	5.71	12.19	18.76	22.12	23.69	23.44	22.87	18.30	15.72	13.59	12.12	12.14	13.11	11.93	11.36	13.45	10.58	7.67	8.03	6.12	6.12	
3.91	6.74	11.33	9.99	8.07	8.72	9.98	10.01	9.67	7.98	5.21	3.94	6.41	7.72	7.76	7.71	6.96	3.55	1.60	1.56	2.85	9.19	15.21	17.82	19.02	20.51	22.77	20.96	17.18	14.81	12.56	12.15	12.27	10.98	14.06	12.81	9.91	9.79	7.24	5.48	5.48	
2.65	5.00	10.42	12.01	9.08	8.41	9.93	9.35	9.44	9.04	6.21	3.76	5.76	7.24	5.97	8.22	7.52	7.10	5.59	2.10	2.51	6.74	11.78	15.31	16.85	18.14	20.58	21.13	18.22	16.17	14.17	13.27	14.46	14.99	14.04	13.33	13.18	11.75	6.60	6.55	6.55	
3.13	1.96	8.02	11.52	11.85	10.09	10.03	8.81	8.73	9.82	8.99	4.68	6.15	6.53	6.18	8.33	8.32	7.26	6.51	4.93	1.42	2.78	6.04	11.74	14.94	15.75	18.80	20.97	20.11	16.96	14.92	13.37	12.83	15.54	14.78	15.20	15.27	14.27	10.02	8.28	8.28	
3.68	2.19	6.07	8.43	10.72	12.32	10.99	8.72	7.20	9.27	10.61	6.12	3.92	5.69	6.09	8.26	8.24	6.72	6.85	6.50	2.04	1.06	2.88	5.70	9.34	13.18	16.42	20.15	22.37	19.83	14.93	12.47	14.62	14.33	14.08	13.70	14.67	14.93	12.34	10.66	10.66	
1.92	1.91	4.91	5.15	8.21	12.89	12.11	8.48	5.49	7.51	10.60	7.98	4.25	4.64	6.98	8.27	7.60	9.33	7.71	6.37	6.28	1.78	1.78	3.50	4.81	7.30	10.24	15.75	22.77	23.50	17.05	12.23	13.35	12.75	12.44	12.35	13.23	13.44	12.42	11.54	11.54	
2.48	1.31	4.15	3.48	6.59	12.75	12.93	7.97	4.42	5.84	9.80	8.52	4.45	4.40	6.11	8.87	8.53	9.36	8.48	7.04	6.98	5.82	1.65	1.45	2.12	3.50	5.78	10.99	18.56	24.36	21.08	13.68	12.07	11.82	11.35	11.75	12.49	13.14	12.79	12.44	12.44	
2.57	2.90	1.48	3.20	6.02	12.03	13.04	8.19	4.41	5.09	9.23	7.72	5.43	3.87	5.55	7.90	9.70	8.87	8.46	8.09	7.63	7.30	6.99	5.93	3.23	2.91	4.24	5.88	10.57	20.83	22.26	14.50	13.24	11.73	11.47	11.58	12.29	12.93	13.58	14.12	14.12	
1.01	1.40	3.38	3.29	5.74	10.79	12.64	9.33	6.09	5.94	8.97	7.61	4.97	5.15	4.17	7.20	9.52	7.45	8.27	7.76	8.21	7.77	7.83	5.51	5.92	5.74	4.66	4.95	7.65	17.18	21.99	16.14	12.41	12.22	11.78	11.69	12.26	12.28	13.03	15.27	15.27	
1.77	2.20	2.44	2.95	4.58	9.05	11.99	10.63	8.67	7.86	9.12	8.02	3.58	4.30	3.77	6.05	7.91	9.52	8.81	7.83	7.57	6.15	6.99	9.43	8.72	7.24	7.31	7.16	8.03	14.68	21.61	20.81	15.60	13.06	12.02	11.38	10.97	9.93	11.03	14.26	14.26	
2.32	2.61	2.70	2.77	4.34	7.58	9.78	10.62	10.30	10.19	9.82	8.47	4.37	4.28	3.86	5.08	6.43	7.35	9.46	8.62	7.22	6.49	5.40	7.33	7.46	8.50	6.48	6.92	7.06	10.31	16.83	21.68	19.85	15.41	13.01	10.98	8.97	7.57	9.12	11.23	11.23	
2.85	2.48	1.80	2.12	3.42	6.70	8.00	8.49	9.35	10.95	11.42	9.81	5.90	5.27	4.24	4.71	5.05	7.47	7.22	8.61	7.76	6.80	4.50	5.98	6.51	8.36	3.13	4.45	5.64	7.29	10.92	18.13	22.33	20.81	15.73	11.55	9.68	8.96	11.29	10.17	10.17	
2.34	1.26	0.58	1.38	1.84	5.56	6.48	6.68	7.55	9.57	12.20	12.66	9.86	6.06	5.52	4.80	5.55	7.15	6.39	8.88	7.99	6.93	6.54	4.77	5.08	7.76	7.30	5.37	5.18	6.62	8.62	12.97	17.70	22.80	19.02	11.58	9.39	9.23	9.57	10.18	10.18	
2.27	0.31	0.97	1.25	1.24	4.80	4.55	4.38	5.03	7.26	9.57	12.52	13.46	10.15	7.48	4.95	5.06	4.69	5.75	6.19	5.90	7.72	7.33	6.76	5.17	8.05	7.96	6.59	4.79	4.24	5.04	6.95	11.50	18.83	20.20	11.17	8.97	10.39	9.58	8.30	8.30	
2.18	0.43	1.01	1.20	3.58	4.68	3.37	1.85	2.82	4.57	6.16	8.58	12.30	13.78	11.08	5.90	4.22	4.29	6.16	5.64	6.52	7.31	7.15	7.73	7.35	6.77	6.08	5.58	4.21	4.09	4.58	6.62	9.02	15.77	22.14	18.61	11.79	11.61	7.45	8.63	8.63	
0.84	0.77	0.54	0.16	2.08	4.53	3.48	1.34	0.87	2.72	2.60	3.79	7.94	12.64	13.60	8.95	6.22	5.03	5.24	6.48	5.54	5.10	7.56	8.43	8.33	9.24	6.06	6.66	4.37	4.29	5.09	6.45	7.84	13.21	23.24	26.02	17.65	13.26	11.40	11.08	11.08	
2.56	1.38	0.56	1.27	1.70	3.04	3.16	1.12	0.50	1.02	1.62	2.43	4.13	9.10	12.62	11.69	9.31	7.23	6.82	6.66	6.61	4.99	5.95	6.21	7.59	8.63	6.82	6.86	6.35	2.98	3.45	4.23	7.20	10.55	17.16	24.26	22.61	16.91	13.26	12.72	12.72	
2.63	2.43	1.53	1.30	1.51	2.08	2.12	0.66	0.48	1.27	1.95	3.09	3.07	6.50	10.44	13.24	11.79	9.11	8.54	8.23	8.32	6.29	4.76	6.67	5.85	8.29	7.92	7.71	6.25	5.28	3.47	2.30	2.88	5.59	11.42	17.92	21.05	17.51	13.17	12.48	12.48	
2.84	2.70	2.32	0.68	0.42	1.02	1.16	0.43	0.64	1.23	1.71	2.99	2.30	5.10	7.43	10.93	13.11	11.74	11.19	10.57	10.43	9.19	5.82	6.61	5.48	7.45	8.53	8.45	7.33	6.73	6.17	4.21	3.16	4.10	7.05	13.16	18.33	16.84	13.63	13.26	13.26	
2.85	2.78	2.46	1.35	1.18	1.41	1.08	0.56	1.00	0.75	0.81	1.32	3.31	3.88	3.66	7.41	10.82	12.65	12.90	13.44	14.14	13.68	10.38	7.37	8.51	7.52	7.67	8.93	6.01	5.49	7.45	6.14	6.15	4.34	5.47	11.04	17.49	16.95	13.68	13.53	13.53	
2.70	2.69	2.11	1.28	1.47	1.67	0.84	0.60	1.36	0.80	0.69	0.46	1.16	2.50	2.03	5.05	7.32	9.37	9.55	10.24	12.38	14.05	14.24	14.40	11.63	9.58	7.87	6.44	5.55	6.02	6.91	7.99	7.19	7.15	5.13	7.97	15.98	17.74	13.90	12.99	12.99	
2.50	2.48	1.11	0.46	0.41	1.46	1.59	1.48	1.15	1.17	1.17	0.77	0.99	0.81	0.62	3.38	4.99	5.95	5.87	5.88	6.60	7.28	7.99	12.15	14.97	13.89	11.55	8.80	6.41	5.30	5.89	5.37	7.05	8.07	5.96	3.75	10.80	17.24	16.47	15.12	15.12	
1.11	1.94	2.31	2.30	1.98	2.41	1.86	1.49	1.38	1.78	0.85	0.05	1.39	1.22	0.27	2.39	3.61	4.40	4.53	4.58	4.64	4.75	2.94	6.35	11.11	14.10	14.65	13.36	9.46	6.12	6.12	4.74	5.45	7.97	8.70	6.90	7.89	12.96	16.40	17.23	17.23	
2.49	2.47	2.38	2.32	2.16	2.38	2.27	2.11	1.43	1.56	1.62	0.10	0.53	1.53	1.62	0.17	1.28	1.83	3.41	4.25	2.29	4.62	4.79	4.59	6.70	9.88	12.22	13.48	12.36	8.76	6.60	5.38	5.43	7.08	9.52	10.04	9.12	10.21	13.95	16.94	16.94	
1.05	1.69	2.38	2.44	2.36	2.33	2.20	2.49	1.97	1.17	1.37	1.36	1.87	1.81	1.54	0.51	0.51	1.99	4.27	5.23	3.75	3.33	3.85	4.35	5.13	7.18	9.32	12.02	14.23	14.26	13.24	11.54	9.57	8.89	9.35	10.08	10.11	10.61	13.37	15.61	15.61	
0.59	1.93	1.53	1.85	2.48	2.37	2.30	2.64	2.66	2.03	1.80	2.04	2.20	1.43	0.30	1.25	0.72	1.97	4.63	5.96	5.46	5.24	5.42	5.61	5.58	6.67	8.64	10.29	13.02	14.72	15.06	14.50	12.90	11.01	9.68	9.39	9.25	10.02	12.36	13.98	13.98	
0.71	1.69	1.95	2.15	2.43	2.60	2.56	2.84	3.25	3.44	2.65	2.18	2.21	0.50	0.70	0.45	1.93	2.11	4.10	6.51	7.86	7.76	7.46	7.33	6.91	6.70	8.31	9.93	11.39	12.43	13.41	13.94	13.18	11.29	9.56	8.83	8.37	8.76	10.97	12.69	12.69	
