ncols	41
nrows	44
xllcorner	319975.000000
yllcorner	4158275.000000
cellsize	200.000000
NODATA_value	-9999.000000
8.52	10.71	13.17	12.27	10.21	10.03	11.25	11.35	11.52	11.44	11.60	12.47	12.14	12.25	12.76	11.74	12.89	11.80	12.88	12.90	12.66	12.42	12.47	12.58	10.89	13.55	13.54	11.73	13.89	14.12	14.20	12.31	12.20	14.66	14.55	12.06	13.91	12.04	13.74	12.38	12.38	
8.52	10.71	13.17	12.27	10.21	10.03	11.25	11.35	11.52	11.44	11.60	12.47	12.14	12.25	12.76	11.74	12.89	11.80	12.88	12.90	12.66	12.42	12.47	12.58	10.89	13.55	13.54	11.73	13.89	14.12	14.20	12.31	12.20	14.66	14.55	12.06	13.91	12.04	13.74	12.38	12.38	
6.65	8.35	12.36	13.92	11.65	10.94	10.55	10.40	10.76	10.95	11.06	11.25	11.56	12.15	12.27	11.47	11.15	12.45	13.02	12.74	12.63	12.57	12.61	12.87	13.09	13.51	12.54	12.74	12.20	14.33	14.34	12.55	14.56	14.61	13.92	13.09	13.02	12.94	14.82	12.27	12.27	
3.26	4.33	10.62	15.24	15.29	13.04	12.53	11.80	10.83	10.97	11.38	11.77	11.65	12.33	12.55	12.17	13.97	13.96	12.68	11.24	12.07	13.07	13.05	12.85	11.37	11.39	13.91	11.61	12.98	14.11	14.28	14.29	14.78	14.59	12.83	13.06	12.99	11.83	11.65	14.84	14.84	
3.43	3.13	8.01	13.52	15.57	14.93	15.59	16.76	13.30	12.03	10.83	11.08	11.21	11.54	12.22	13.27	12.09	12.99	11.53	11.43	11.79	13.71	13.74	12.73	9.82	13.79	12.52	12.95	13.83	14.17	14.52	15.02	14.75	12.74	12.82	12.91	12.85	14.80	14.43	14.00	14.00	
2.12	2.27	5.75	10.67	13.43	13.16	12.70	14.52	16.68	17.60	13.78	11.79	12.58	11.77	12.08	11.93	13.52	13.65	12.32	10.90	11.86	12.70	14.62	11.08	13.46	11.64	12.54	14.13	13.46	13.78	14.35	14.91	13.62	12.86	14.09	12.05	12.17	12.07	13.43	11.34	11.34	
1.23	2.35	6.49	10.04	11.95	11.88	11.10	10.88	12.32	15.26	16.01	15.44	15.44	12.57	11.78	12.70	14.59	14.36	13.33	12.87	11.74	12.16	13.14	12.70	11.71	12.10	14.20	14.21	13.27	14.22	15.23	13.88	13.04	12.66	12.65	12.10	12.21	14.76	12.90	13.91	13.91	
1.50	3.43	7.13	9.86	11.27	11.39	10.92	10.99	10.60	10.31	12.95	14.89	15.00	12.90	11.73	13.03	16.06	16.38	14.56	12.26	13.01	11.32	11.20	11.64	12.02	12.29	13.42	13.43	13.70	14.78	14.61	13.77	13.06	13.04	13.13	12.93	11.89	11.55	14.45	14.22	14.22	
3.47	4.37	7.47	10.10	11.64	11.23	10.40	11.41	11.57	9.70	11.17	14.91	13.63	12.16	11.24	13.18	16.14	18.11	16.67	14.97	15.23	12.60	11.80	10.23	12.90	12.85	12.63	13.38	14.25	14.72	14.02	14.34	15.36	14.51	10.69	10.88	14.06	12.60	12.72	13.07	13.07	
3.90	4.98	8.60	11.05	10.75	11.22	10.09	10.81	12.07	11.24	11.72	14.56	12.66	11.81	11.09	12.67	15.23	17.55	18.56	18.80	17.83	15.17	11.64	11.17	11.71	11.89	12.57	13.73	14.33	14.72	14.09	14.54	16.02	14.68	13.52	11.92	10.67	11.81	12.92	11.21	11.21	
4.05	5.42	7.85	11.16	10.99	9.66	10.58	10.47	11.52	12.49	13.93	14.63	12.28	12.09	8.87	11.56	16.18	18.88	19.70	20.61	19.22	16.28	12.35	11.09	11.79	12.20	13.50	14.20	14.56	15.30	14.08	13.78	16.56	16.60	13.22	9.64	9.54	10.74	12.47	10.12	10.12	
7.73	8.54	7.99	11.22	11.21	9.65	10.77	10.96	11.26	11.94	13.59	14.63	13.82	11.28	9.74	11.72	16.44	20.93	23.59	24.83	21.03	18.16	15.33	13.51	13.51	13.72	14.27	14.65	14.79	15.66	14.50	14.73	14.66	15.61	14.57	10.67	8.17	10.75	12.07	10.27	10.27	
8.58	9.30	8.31	10.73	11.34	9.73	9.04	10.81	11.09	11.68	12.71	13.80	14.01	11.18	13.62	10.94	12.91	17.81	24.83	28.55	24.45	20.04	17.90	16.03	14.82	14.67	15.07	15.62	15.87	17.09	14.74	13.72	13.30	14.30	14.88	12.99	12.60	12.85	12.51	12.91	12.91	
9.40	10.03	10.08	10.78	11.01	10.00	8.84	10.04	10.31	10.33	12.18	12.64	14.28	12.02	13.98	13.25	10.83	12.00	18.49	28.66	30.69	25.50	20.42	18.87	16.65	15.63	16.43	16.56	17.72	19.13	16.51	14.21	13.90	14.30	13.49	13.68	11.63	13.37	12.34	11.17	11.17	
10.33	11.40	11.69	11.72	11.99	12.06	11.11	9.95	9.82	8.66	9.76	11.70	12.45	10.72	12.77	12.54	10.19	9.92	14.09	23.77	31.41	32.03	25.98	23.06	19.91	16.57	16.70	17.58	19.20	21.03	19.96	16.95	16.20	14.62	13.50	13.31	12.13	13.43	12.74	12.04	12.04	
13.39	12.78	11.84	10.39	10.67	11.96	10.85	9.49	8.93	7.42	8.98	11.96	11.71	10.71	10.33	10.62	9.52	7.96	9.08	15.01	25.34	31.84	32.50	28.92	23.80	20.04	18.64	18.25	19.24	20.11	19.74	18.79	17.62	15.91	14.83	13.78	12.81	12.95	12.13	11.83	11.83	
13.12	13.72	12.49	10.16	10.60	12.17	10.98	10.03	8.73	8.50	9.36	10.60	11.07	10.74	10.75	10.45	7.63	5.68	5.46	7.92	15.37	24.80	29.81	31.76	29.83	26.06	23.15	20.16	19.64	18.45	17.15	16.97	17.61	16.21	15.08	14.79	14.61	11.99	10.93	10.35	10.35	
11.35	13.24	13.90	10.96	11.19	12.28	11.79	10.98	9.94	8.76	8.52	7.24	10.28	10.38	10.64	10.04	6.35	5.00	4.40	4.90	8.22	15.72	22.83	26.67	28.65	28.46	27.53	22.42	20.74	17.94	15.19	15.07	15.64	15.21	15.39	15.84	13.29	11.21	10.60	11.17	11.17	
7.81	11.26	15.35	12.75	10.94	11.69	12.44	12.06	11.69	10.14	7.61	8.21	9.41	10.86	11.12	10.71	9.45	6.30	4.12	3.81	5.51	10.18	17.14	21.65	23.06	24.59	27.01	25.13	21.83	18.10	17.37	15.00	16.43	16.16	16.84	14.89	12.96	11.28	9.49	10.45	10.45	
5.05	8.81	14.56	15.62	11.88	11.28	10.62	11.46	12.39	12.21	9.00	7.45	9.28	10.52	8.59	10.97	10.54	9.83	8.32	4.99	5.17	7.64	13.11	18.78	20.52	21.84	23.57	25.95	22.33	19.35	17.47	17.60	18.78	18.52	17.14	17.26	17.09	13.96	10.58	11.14	11.14	
4.59	4.87	11.19	14.93	15.12	12.57	11.15	10.89	10.55	13.37	11.68	7.88	9.01	9.67	9.04	11.72	11.24	9.49	9.44	7.85	4.40	4.57	7.42	12.35	18.45	19.65	22.74	24.90	24.63	20.67	18.75	18.59	18.98	19.60	18.38	18.69	19.78	18.33	14.14	12.83	12.83	
5.21	4.40	8.25	11.45	14.24	14.62	12.14	10.37	10.17	12.35	10.87	8.78	9.26	8.90	8.83	11.52	11.29	9.12	9.12	9.10	4.91	3.72	5.10	8.10	12.43	16.72	20.44	24.20	25.98	22.68	18.52	17.66	17.94	18.06	17.67	17.30	17.80	18.98	15.03	13.15	13.15	
5.10	5.22	5.90	7.77	11.15	14.27	12.45	9.42	8.92	9.55	11.20	9.79	8.39	9.66	9.86	11.60	10.29	11.86	9.88	8.57	8.87	4.53	4.30	5.70	7.30	10.08	13.04	18.10	26.18	26.56	19.96	16.93	16.75	16.17	15.54	15.45	15.93	15.89	14.49	13.33	13.33	
4.23	3.78	4.92	5.00	8.19	13.77	12.90	8.75	8.27	7.96	10.48	8.99	7.93	9.78	8.85	12.00	11.37	12.15	10.59	9.32	9.64	8.38	3.64	2.75	3.84	5.22	7.36	11.37	21.54	27.68	23.70	17.00	16.37	15.02	14.64	14.30	14.99	15.54	15.13	14.56	14.56	
5.12	2.92	3.66	5.35	7.91	13.19	13.12	9.21	7.86	6.20	9.02	8.25	7.28	8.90	8.01	10.13	12.62	12.11	10.60	11.10	10.84	9.99	9.38	8.26	5.52	4.99	5.48	7.58	12.96	23.45	24.64	17.49	16.48	15.38	14.12	14.25	14.63	15.44	16.16	16.88	16.88	
3.43	3.77	4.80	5.97	7.99	12.62	13.64	10.69	8.24	7.28	9.73	9.76	7.50	8.15	6.60	9.02	12.34	9.38	11.59	10.98	11.35	11.06	10.90	7.75	8.32	8.27	7.05	7.11	9.95	19.35	24.31	20.38	16.76	16.23	16.61	14.05	14.46	14.35	14.88	17.65	17.65	
4.51	5.06	5.44	6.07	7.69	11.52	14.01	12.51	10.24	8.68	9.69	9.30	7.31	7.28	6.03	7.44	10.30	12.52	11.76	10.71	10.79	9.45	9.94	13.03	11.86	10.23	10.49	10.48	11.07	17.13	24.44	23.67	17.99	17.11	16.61	13.13	12.62	11.06	12.18	15.58	15.58	
5.24	5.82	6.42	6.60	7.68	10.29	12.59	13.58	13.14	11.81	10.02	9.78	7.68	7.32	6.03	6.22	10.14	11.73	11.86	11.41	10.19	9.64	8.61	10.19	10.28	11.76	9.94	9.80	9.97	11.35	19.48	24.78	22.56	17.49	16.89	12.96	10.58	8.70	10.03	12.83	12.83	
6.42	6.22	5.76	5.73	6.29	9.43	11.03	12.31	13.69	14.58	13.40	11.28	8.28	7.70	8.30	8.53	9.15	10.53	11.65	11.64	10.39	10.00	7.28	8.46	9.37	11.19	5.90	7.05	8.10	9.63	13.51	21.16	25.76	23.64	18.43	13.76	12.69	11.54	13.42	15.02	15.02	
6.11	4.84	4.12	4.17	4.51	6.85	9.33	10.73	12.20	14.22	15.99	14.77	11.06	9.05	8.81	8.59	9.27	9.77	10.70	11.11	11.19	10.16	9.35	7.23	7.59	10.28	9.82	8.25	8.06	9.38	10.83	13.62	20.73	26.14	22.43	14.42	11.63	12.45	14.27	14.57	14.57	
5.40	3.33	4.13	4.63	4.62	4.29	5.89	6.92	8.86	11.06	14.32	16.82	16.13	11.56	9.33	8.35	8.33	9.03	9.23	9.95	10.64	10.44	10.17	9.58	6.91	10.58	10.88	9.77	7.78	6.58	6.50	7.94	11.73	21.49	23.69	14.21	12.08	12.43	11.50	12.91	12.91	
4.96	3.45	4.54	5.26	6.05	5.00	5.41	3.26	4.52	7.56	9.14	12.51	16.02	15.78	11.17	8.41	7.84	8.55	9.08	10.14	9.78	10.25	10.66	11.04	9.86	8.88	8.57	8.73	6.92	6.54	6.56	8.21	11.00	18.01	25.39	22.13	15.29	13.21	11.28	13.17	13.17	
4.09	4.17	3.97	3.98	3.78	3.70	4.76	2.28	2.74	3.35	4.19	6.32	10.99	15.15	14.57	10.83	8.75	8.34	8.98	9.67	9.86	10.30	10.79	11.66	10.98	11.57	8.39	9.14	7.13	6.96	7.47	8.64	10.04	13.11	26.16	29.25	21.67	17.01	13.28	13.19	13.19	
5.98	4.70	3.36	2.52	1.68	1.98	3.31	2.28	2.37	2.44	3.31	4.52	6.83	11.84	15.33	13.80	11.56	10.48	10.47	10.53	10.48	9.73	10.30	9.09	9.90	10.46	8.97	9.21	9.17	5.28	5.65	6.50	6.78	9.83	19.09	27.18	25.51	19.40	16.87	14.85	14.85	
4.56	4.38	1.90	1.87	1.46	0.50	1.32	1.83	2.97	4.03	4.97	5.73	6.68	9.75	14.15	16.56	14.36	12.85	12.03	11.78	9.78	10.09	9.37	9.78	7.98	11.80	11.42	9.84	8.92	8.93	5.62	3.91	3.99	6.97	12.66	19.45	23.32	19.57	15.51	15.06	15.06	
4.68	4.65	4.35	2.59	2.57	1.66	1.25	2.07	3.23	4.51	5.61	6.18	6.28	8.58	11.37	14.99	16.56	15.42	14.37	13.13	13.79	11.90	9.25	8.60	9.28	10.83	10.25	10.84	9.70	9.69	8.47	6.16	4.80	5.48	8.41	13.49	20.11	18.55	15.77	15.09	15.09	
4.61	4.65	4.46	2.61	2.22	1.70	1.51	1.87	3.13	4.02	4.60	4.94	5.21	5.63	7.26	9.75	14.35	16.24	16.71	17.04	17.18	15.97	12.14	10.65	10.64	11.00	10.94	10.81	10.58	10.04	9.80	9.20	8.00	6.18	7.11	11.71	19.40	18.57	15.39	15.27	15.27	
4.12	4.04	1.52	1.10	0.96	0.69	1.11	2.32	3.36	3.28	2.63	2.76	3.20	3.70	4.57	6.16	9.53	10.91	11.71	13.10	15.50	16.98	16.69	16.48	13.39	11.85	10.39	10.02	9.66	9.62	10.14	10.40	10.49	9.02	7.02	8.31	17.81	19.52	15.82	14.08	14.08	
3.36	3.17	0.99	2.10	1.92	3.74	4.13	4.10	4.46	3.30	2.87	2.60	1.60	1.25	2.29	3.22	4.39	5.22	5.35	5.48	8.15	8.87	9.48	13.98	16.81	15.05	12.18	11.27	9.56	9.10	9.25	7.35	9.04	9.90	7.55	5.24	12.26	19.22	18.37	16.88	16.88	
3.63	4.34	4.54	4.72	4.51	5.00	4.82	4.77	4.51	4.65	4.19	3.09	1.29	0.81	1.67	1.63	2.21	3.11	3.51	3.30	3.48	5.51	3.81	6.54	12.66	15.65	15.96	14.37	11.93	9.45	8.45	7.62	7.27	9.70	10.44	8.58	7.84	14.89	18.45	19.20	19.20	
4.05	4.09	4.00	5.41	4.04	5.55	5.31	5.40	5.13	4.82	4.52	2.87	2.14	3.83	3.85	2.71	2.08	3.01	4.24	4.07	3.30	4.93	6.83	6.68	7.41	11.43	13.56	14.92	13.46	12.58	9.91	8.77	7.75	9.06	11.40	11.60	8.14	10.06	15.64	18.70	18.70	
3.59	4.47	5.17	5.23	4.44	5.45	4.10	4.15	3.72	3.28	4.98	4.72	3.59	5.20	4.44	3.25	2.31	3.70	5.52	5.78	4.95	5.94	5.78	6.33	6.60	8.61	10.34	12.89	15.38	15.94	15.08	13.40	11.60	10.82	10.86	11.44	9.47	9.71	12.93	16.06	16.06	
3.23	3.92	4.16	4.63	5.51	4.84	5.69	5.04	5.04	5.99	4.55	4.67	4.64	4.57	3.10	2.16	3.26	4.67	6.51	7.63	7.49	7.42	8.83	7.59	7.72	8.70	10.41	12.05	14.25	15.99	17.02	15.97	15.26	12.12	10.55	9.97	8.22	11.10	13.96	14.40	14.40	
3.13	4.02	4.06	4.48	5.30	5.64	6.00	6.26	6.62	6.70	6.21	5.47	4.86	3.48	2.08	2.03	4.05	5.20	7.31	9.15	10.32	10.86	10.65	9.99	9.31	9.04	10.72	11.95	12.52	12.21	14.32	14.33	13.99	11.78	9.90	8.31	7.01	9.54	12.47	13.48	13.48	
